# 3D point list with one line of data per point:
#   POINT3D_ID, X, Y, Z, R, G, B, ERROR, TRACK[] as (IMAGE_ID, POINT2D_IDX)
# Number of points: 475, mean track length: 3.01674
473 -2.676509857177734 0.7579431533813477 -2.833063840866089 147 154 150 0 0 472 1 471 2 270 3 191 4 180 5 244
474 -2.35749340057373 0.5925924181938171 -2.71778416633606 158 162 157 0 0 473 1 472 2 271 3 192 4 181
475 -2.118005990982056 0.5420655012130737 -2.55137300491333 128 135 130 0 0 474 1 473 2 272 4 182 5 245 6 163
476 -2.695397138595581 0.5876096487045288 -2.959880590438843 103 106 107 0 0 475 1 474 3 193 4 183 5 246
477 -2.906981468200684 0.4500078856945038 -3.070017576217651 157 160 155 0 0 476 1 475 3 194 4 184
478 -2.486037492752075 0.0373922698199749 -2.238754510879517 113 119 116 0 0 477 1 476 2 273 5 247 6 164
479 -3.049201250076294 0.05553767085075378 -2.717047452926636 120 124 119 0 0 478 1 477 2 274 3 195
480 -2.814258098602295 -0.5484592318534851 -2.182192325592041 143 150 145 0 0 479 1 478
481 -1.848881363868713 1.063738465309143 -2.943275213241577 126 132 129 0 0 480 1 479 2 275 3 196 4 185 5 248 6 165
482 -2.142729043960571 0.9826757907867432 -2.824912786483765 175 185 181 0 0 481 1 480 3 197 4 186 5 249 6 166
483 -2.670621633529663 0.8222541213035583 -2.863109111785889 175 181 178 0 0 482 1 481 3 198 4 187 5 250
484 -2.678182601928711 0.7869111299514771 -2.842155694961548 166 173 169 0 0 483 1 482 2 276 3 199 4 188 5 251
485 -2.457527637481689 0.6456018090248108 -2.799429893493652 136 141 135 0 0 484 1 483 2 277 3 200 4 189 5 252
486 -2.149931669235229 0.4027914702892303 -2.50869607925415 145 151 146 0 0 485 1 484 2 278 4 190 5 253 6 167
487 -2.064228296279907 0.308005303144455 -2.414186239242554 121 128 124 0 0 486 1 485 4 191 5 254
488 -2.372161388397217 0.02694683521986008 -2.223110437393188 157 164 160 0 0 487 1 486 5 255 6 168
489 -3.258607149124146 0.1046761646866798 -2.940886974334717 175 179 174 0 0 488 1 487
490 -1.769695997238159 -0.4126971960067749 -2.278015851974487 165 171 165 0 0 489 1 488
491 -2.272546768188477 -0.3306491672992706 -2.232168436050415 140 145 140 0 0 490 1 489 2 279
492 -2.466009616851807 -0.5072775483131409 -2.177283763885498 97 104 101 0 0 491 1 490 2 280
493 -2.327717304229736 -0.6124534010887146 -2.062463998794556 161 167 162 0 0 492 1 491
494 -2.744046449661255 -0.5438342690467834 -2.1797776222229 125 133 128 0 0 493 1 492
495 -3.159899711608887 -0.5336348414421082 -2.1720290184021 154 159 155 0 0 494 1 493
496 -2.510818243026733 0.5520929098129272 -2.711936235427856 149 152 147 0 0 495 1 494 2 281 4 192 5 256
497 -2.432389259338379 0.120672382414341 -2.263648271560669 149 157 153 0 0 496 1 495 2 282 5 257 6 169
498 -2.564790725708008 -0.1467071026563644 -2.329715490341187 129 134 130 0 0 497 1 496 2 283
499 -1.75337553024292 -0.3854738175868988 -2.303791284561157 139 145 139 0 0 498 1 497
500 -2.610038995742798 -0.1986594647169113 -2.324807167053223 165 169 161 0 0 499 1 498 2 284
501 -1.905919909477234 -0.4109377264976501 -2.27392315864563 169 173 168 0 0 500 1 499
502 -2.195176362991333 -0.3393376469612122 -2.172890663146973 161 169 164 0 0 501 1 500
503 -2.90974760055542 -0.1725500822067261 -2.361008882522583 140 146 142 0 0 502 1 501 2 285 3 201
504 -2.59911322593689 -0.4841481745243073 -2.229788303375244 161 165 159 0 0 503 1 502
505 -2.453904151916504 -0.552739143371582 -2.123787403106689 167 171 166 0 0 504 1 503
506 -3.222590208053589 -0.3651701509952545 -2.452785015106201 166 171 166 0 0 505 1 504
507 -3.24582314491272 -0.4641731679439545 -2.394143581390381 140 147 140 0 0 506 1 505
508 -2.370698213577271 1.364506840705872 -3.472833871841431 149 157 152 0 0 507 1 506 2 286 3 202 4 193 5 258
509 -1.386595845222473 0.9886641502380371 -2.536049842834473 101 104 99 0 0 508 1 507 2 287 4 194 5 259 6 170
510 -1.48224937915802 0.952286422252655 -2.514583826065063 129 136 132 0 0 509 1 508 5 260 6 171
511 -1.781309366226196 0.8737246990203857 -2.569475650787354 115 124 120 0 0 510 1 509 2 288 4 195 5 261 6 172
512 -1.456669330596924 0.8167964220046997 -2.401875734329224 138 144 142 0 0 511 4 196 5 262 6 173 7 15 8 0
513 -2.035033226013184 0.866269588470459 -2.829291820526123 160 165 160 0 0 512 1 510 2 289 3 203 4 197 5 263 6 174
514 -1.666423916816711 0.6061345934867859 -2.3448166847229 52 56 52 0 0 513 1 511 5 264 6 175 7 16
515 -2.183328866958618 0.5592653155326843 -2.592954397201538 98 103 98 0 0 514 1 512 2 290 3 204 4 198 5 265 6 176
516 -2.426477909088135 0.253400444984436 -2.401007413864136 105 111 106 0 0 515 1 513 2 291 5 266 6 177
517 -2.523992300033569 0.04958589002490044 -2.262815713882446 133 140 136 0 0 516 1 514 2 292 5 267 6 178
518 -3.111448049545288 0.1305061429738998 -2.899383068084717 107 111 107 0 0 517 1 515 2 293 3 205
519 -1.671918749809265 -0.2543494403362274 -2.420151472091675 125 132 126 0 0 518 1 516 5 268 6 179
520 -2.568153619766235 -0.1084811016917229 -2.330493927001953 122 126 118 0 0 519 1 517 2 294
521 -3.17626690864563 -0.004075567703694105 -2.738160610198975 118 121 117 0 0 520 1 518 2 295 3 206
522 -2.870658159255981 -0.5227435827255249 -2.218318462371826 134 140 135 0 0 521 1 519 2 296
523 -2.716965198516846 -0.634030818939209 -2.04046893119812 115 122 118 0 0 522 1 520
524 -2.082242965698242 0.8109479546546936 -2.816729545593262 140 144 138 0 0 523 1 521 2 297 3 207 4 199 5 269 6 180
525 -2.215235471725464 0.788150429725647 -2.818504333496094 129 135 129 0 0 524 1 522 2 298 3 208 4 200 5 270 6 181
526 -2.091513633728027 0.5229268670082092 -2.541975021362305 139 144 140 0 0 525 1 523 2 299 5 271 6 182
527 -2.352149248123169 0.5031489133834839 -2.652408123016357 150 156 150 0 0 526 1 524 5 272 6 183
528 -1.792414665222168 0.1344274580478668 -2.27472186088562 162 169 166 0 0 527 1 525 5 273 6 184
529 -2.419034481048584 0.109052911400795 -2.256523609161377 161 167 164 0 0 528 1 526 2 300 5 274 6 185
530 -2.238572597503662 0.06551752984523773 -2.267623662948608 128 133 128 0 0 529 1 527 5 275 6 186
531 -2.474105596542358 0.05943343788385391 -2.242998600006104 115 123 119 0 0 530 1 528 5 276 6 187
532 -2.35439133644104 0.0002972282527480274 -2.204994678497314 117 123 120 0 0 531 1 529 5 277 6 188
533 -2.561372041702271 -0.182618573307991 -2.319217681884766 185 191 187 0 0 532 1 530 2 301
534 -2.601898193359375 -0.2038841098546982 -2.320763111114502 168 172 166 0 0 533 1 531 2 302
535 -2.797172546386719 -0.2286162078380585 -2.283020496368408 179 183 177 0 0 534 1 532 2 303
536 -2.655691146850586 -0.2715606391429901 -2.254916429519653 169 174 171 0 0 535 1 533 2 304
537 -2.456881999969482 -0.466142326593399 -2.225598812103271 108 114 109 0 0 536 1 534 2 305
538 -2.427634716033936 -0.7208665609359741 -1.898250102996826 77 86 83 0 0 537 1 535
539 -2.013083457946777 1.260605692863464 -3.231908559799194 143 150 147 0 0 538 1 536 3 209 4 201 5 278 6 189
540 -1.742556691169739 0.7710963487625122 -2.434836864471436 99 109 106 0 0 539 1 537 2 306 4 202 5 279 6 190
541 -2.515787124633789 0.5037789344787598 -2.661804437637329 127 131 127 0 0 540 1 538 2 307 3 210 4 203 5 280
542 -2.69827938079834 0.01618105731904507 -2.447517871856689 108 111 103 0 0 541 1 539 2 308
543 -1.611282229423523 -0.2729186713695526 -2.402243852615356 143 150 146 0 0 542 1 540 5 281 6 191
544 -2.838496208190918 -0.335900217294693 -2.251479625701904 174 178 171 0 0 543 1 541
545 -2.668540954589844 -0.3904188871383667 -2.213460683822632 175 179 174 0 0 544 1 542
546 -2.539172410964966 -0.44441157579422 -2.251247644424438 173 176 170 0 0 545 1 543
547 -2.091566562652588 -0.605576753616333 -2.071250438690186 150 155 149 0 0 546 1 544
548 -2.833966970443726 -0.5534738898277283 -2.182965517044067 142 147 143 0 0 547 1 545
549 -2.928755760192871 -0.5985115766525269 -1.952290773391724 108 114 111 0 0 548
550 -1.801006555557251 1.302934408187866 -3.201911926269531 61 66 60 0 0 549 1 546 2 309 4 204 5 282 6 192
551 -1.436448097229004 1.135402083396912 -2.733608722686768 81 84 78 0 0 550 1 547 4 205 5 283 6 193
552 -1.63786780834198 0.7182914018630981 -2.385226726531982 155 163 159 0 0 551 1 548 5 284 6 194
553 -2.84018874168396 0.5027301907539368 -3.095796585083008 98 100 97 0 0 552 1 549 4 206
554 -2.433868646621704 0.0519556924700737 -2.226531505584717 134 142 139 0 0 553 1 550 5 285 6 195
555 -2.727875471115112 0.01352260075509548 -2.463950157165527 165 170 164 0 0 554 1 551 2 310 3 211
556 -3.28505539894104 -0.4681684076786041 -2.363512277603149 156 163 159 0 0 555 1 552
557 -2.616572618484497 0.8745599985122681 -2.907801151275635 174 180 175 0 0 556 1 553 5 286
558 -1.826120734214783 -0.230618342757225 -2.459592580795288 164 167 164 0 0 557 1 554 5 287 6 196
559 -1.946188569068909 -0.3403516411781311 -2.346393585205078 148 153 147 0 0 558 1 555
560 -1.987481117248535 -0.3665976822376251 -2.325081348419189 142 146 142 0 0 559 1 556
561 -2.914263725280762 -0.1272259056568146 -2.402987957000732 116 120 115 0 0 560 1 557 2 311 3 212
562 -2.58525538444519 -0.2183463871479034 -2.312991380691528 185 188 184 0 0 561 1 558
563 -2.386215686798096 -0.4140071272850037 -2.263001441955566 135 139 133 0 0 562 1 559
564 -2.442328929901123 -0.4354330599308014 -2.245868921279907 168 172 167 0 0 563 1 560
565 -2.527858018875122 -0.4431245028972626 -2.2516028881073 149 155 148 0 0 564 1 561
566 -2.458271503448486 -0.4634396731853485 -2.228868007659912 107 116 109 0 0 565 1 562 2 312
567 -3.216143608093262 -0.3609426617622375 -2.457266092300415 164 170 165 0 0 566 1 563
568 -2.359704494476318 1.312411427497864 -3.370550155639648 85 91 85 0 0 567 1 564 2 313 3 213 4 207 5 288
569 -2.083026885986328 1.282271146774292 -3.287695169448853 146 152 146 0 0 568 1 565 2 314 3 214 4 208 5 289
570 -1.531499028205872 1.147216558456421 -2.809603929519653 136 142 138 0 0 569 1 566 2 315 5 290 6 197 7 17
571 -2.716784238815308 1.051810026168823 -3.110325574874878 111 117 112 0 0 570 1 567 2 316 3 215 4 209 5 291
572 -1.784216046333313 0.8807398080825806 -2.578636407852173 85 92 88 0 0 571 1 568 2 317 4 210 5 292 6 198
573 -1.701165437698364 0.6811242699623108 -2.36788010597229 74 78 73 0 0 572 1 569 4 211 5 293 6 199 7 18
574 -1.915764331817627 0.4770385921001434 -2.470916509628296 65 70 66 0 0 573 1 570 2 318 4 212 5 294 6 200
575 -2.957701921463013 0.3991563320159912 -3.10407018661499 120 124 122 0 0 574 1 571 2 319 3 216 5 295
576 -2.952335596084595 0.1195055469870567 -2.751011371612549 52 57 54 0 0 575 1 572 2 320 3 217 5 296
577 -3.118729591369629 -0.01978693529963493 -2.678345441818237 62 66 62 0 0 576 1 573 2 321 3 218
578 -2.881461143493652 -0.06407073885202408 -2.427839517593384 88 95 89 0 0 577 1 574 2 322 3 219
579 -2.702624320983887 -0.1131185218691826 -2.394439458847046 155 159 154 0 0 578 1 575 2 323 3 220
580 -3.282090425491333 -0.05126884579658508 -2.813261270523071 74 78 74 0 0 579 1 576 2 324 3 221
581 -2.973542213439941 -0.4718602895736694 -2.208936929702759 125 131 126 0 0 580 1 577 2 325
582 -1.731842875480652 1.212611079216003 -3.068340301513672 55 60 54 0 0 581 1 578 2 326 3 222 4 213 5 297 6 201
583 -1.304126501083374 1.110270857810974 -2.704999923706055 82 87 81 0 0 582 1 579 2 327 4 214 5 298 6 202
584 -2.613790512084961 0.6933502554893494 -2.838943958282471 64 67 61 0 0 583 1 580 2 328 3 223 4 215 5 299
585 -2.106427192687988 1.453973174095154 -3.388796806335449 64 69 63 0 0 584 1 581 2 329 3 224 4 216 5 300
586 -1.770770668983459 1.26836109161377 -3.099153280258179 81 88 86 0 0 585 1 582 2 330 3 225 4 217 5 301 6 203
587 -2.917632818222046 0.9331422448158264 -3.053534507751465 89 98 93 0 0 586 1 583 2 331 3 226 4 218 5 302
588 -2.475714445114136 0.7136232852935791 -2.828677177429199 141 145 139 0 0 587 1 584 2 332 3 227 4 219 5 303
589 -2.140101909637451 0.6507369875907898 -2.65074634552002 61 65 59 0 0 588 1 585 2 333 3 228 4 220 5 304 6 204
590 -1.919610142707825 0.4495689272880554 -2.44224214553833 67 73 66 0 0 589 1 586 2 334 4 221 5 305 6 205
591 -1.919795393943787 0.2971592247486115 -2.305835485458374 112 120 114 0 0 590 1 587 2 335 4 222 5 306 6 206
592 -2.502416133880615 0.05829940363764763 -2.254184484481812 77 84 80 0 0 591 1 588 2 336 5 307 6 207
593 -1.64953088760376 -0.2441359460353851 -2.430949687957764 135 142 138 0 0 592 1 589 5 308 6 208
594 -2.920450687408447 -0.04556971415877342 -2.463895082473755 123 131 125 0 0 593 1 590 2 337 3 229
595 -2.673289060592651 -0.517953634262085 -2.192370176315308 113 119 113 0 0 594 1 591 2 338
596 -3.297134160995483 -0.05410955473780632 -2.822303295135498 45 50 47 0 0 595 1 592 2 339 3 230
597 -1.713094711303711 1.398704528808594 -3.263853311538696 150 156 153 0 0 596 1 593 2 340 3 231 4 223
598 -1.827145457267761 1.309874773025513 -3.208858251571655 123 129 123 0 0 597 1 594 3 232 4 224 5 309 6 209
599 -2.352508306503296 1.080171942710876 -3.043526172637939 101 105 100 0 0 598 1 595 2 341 3 233 4 225 5 310
600 -2.181268930435181 0.8794645667076111 -2.801445960998535 99 106 101 0 0 599 1 596 2 342 3 234 4 226 5 311 6 210
601 -1.991746783256531 0.3266559541225433 -2.387802124023438 124 133 131 0 0 600 1 597 2 343 4 227 5 312 6 211
602 -1.94516909122467 0.1670646369457245 -2.312788248062134 127 132 129 0 0 601 1 598 2 344 4 228 5 313 6 212 7 19
603 -2.026909351348877 0.1125201359391212 -2.317759037017822 109 116 111 0 0 602 1 599 2 345 5 314 6 213 7 20
604 -3.318850755691528 -0.2701179385185242 -2.662684202194214 87 93 89 0 0 603 1 600 2 346 3 235
605 -2.800013065338135 -0.6171736121177673 -2.075308561325073 115 120 117 0 0 604 1 601
606 -1.966566920280457 1.421190500259399 -3.29034161567688 119 125 121 0 0 605 1 602 2 347 3 236 4 229 5 315 6 214
607 -1.411306142807007 1.29081654548645 -2.83491039276123 92 103 103 0 0 606 1 603 2 348 4 230 5 316 6 215
608 -1.724323272705078 0.9679578542709351 -2.707390069961548 55 63 58 0 0 607 1 604 5 317 6 216
609 -2.410726308822632 0.9887315034866333 -2.939202785491943 78 84 77 0 0 608 1 605 2 349 3 237 4 231
610 -1.694578766822815 0.8558638095855713 -2.536033153533936 95 100 96 0 0 609 1 606 2 350 4 232 5 318 6 217
611 -2.31378173828125 0.6562281847000122 -2.7625732421875 103 109 102 0 0 610 1 607 2 351 3 238 4 233 5 319 6 218
612 -1.997448086738586 0.5932160019874573 -2.568548440933228 103 108 102 0 0 611 1 608 2 352 4 234 5 320 6 219
613 -1.828973531723022 0.3923822343349457 -2.40307879447937 126 134 129 0 0 612 1 609 2 353 4 235 5 321 6 220
614 -2.031904935836792 0.1290864944458008 -2.319163799285889 82 86 81 0 0 613 1 610 2 354 5 322 6 221 7 21
615 -2.45185923576355 0.08781968057155609 -2.253716707229614 96 103 100 0 0 614 1 611 2 355 5 323 6 222
616 -2.986769914627075 0.07146418839693069 -2.685056447982788 109 113 108 0 0 615 1 612 2 356 3 239
617 -2.976211786270142 0.07120871543884277 -2.674076557159424 99 103 98 0 0 616 1 613 2 357 3 240
618 -2.904811859130859 -0.2577031254768372 -2.29034686088562 84 90 86 0 0 617 1 614 2 358 3 241
619 -3.178234577178955 -0.4891378879547119 -2.361845254898071 95 103 99 0 0 618 1 615
620 -3.012692928314209 -0.6121680736541748 -2.114092826843262 141 148 143 0 0 619 1 616
621 -2.969630718231201 0.1882233172655106 -2.895698308944702 47 52 49 0 0 620 1 617 2 359 3 242 5 324
622 -3.159176588058472 -0.495244026184082 -2.338219881057739 44 50 47 0 0 621 1 618
623 -2.078457355499268 1.495922565460205 -3.387174129486084 69 77 80 0 0 622 1 619 2 360 3 243 4 236
624 -2.344711303710938 0.9090065360069275 -2.896986722946167 144 149 143 0 0 623 1 620 2 361 3 244 4 237 5 325
625 -2.805686235427856 0.9291754364967346 -2.971944093704224 124 132 127 0 0 624 1 621 3 245 4 238
626 -2.347557544708252 0.7182238101959229 -2.85146164894104 129 133 129 0 0 625 1 622 2 362 3 246 4 239 5 326 6 223
627 -1.834889650344849 -0.3700551688671112 -2.307493686676025 157 163 157 0 0 626 1 623
628 -2.455606937408447 -0.4450991153717041 -2.243847370147705 136 140 134 0 0 627 1 624
629 -2.385863065719604 -0.4632150828838348 -2.210907459259033 115 120 115 0 0 628 1 625 2 363
630 -3.048825025558472 -0.2933705151081085 -2.390863418579102 105 111 108 0 0 629 1 626
631 -2.132274389266968 -0.5710371732711792 -2.109204530715942 168 174 169 0 0 630 1 627
632 -2.06723690032959 -0.5898221135139465 -2.085271120071411 151 156 152 0 0 631 1 628
633 -2.572914838790894 -0.596762478351593 -2.083360910415649 160 165 160 0 0 632 1 629
634 -2.501739978790283 -0.6628488898277283 -1.985265374183655 147 153 148 0 0 633 1 630
635 -2.880093097686768 -0.5996746420860291 -2.106382608413696 131 138 132 0 0 634 1 631
636 -1.873796939849854 1.395957350730896 -3.309561491012573 141 146 140 0 0 635 1 632 2 364 3 247 4 240 5 327
637 -2.345484256744385 1.025472640991211 -2.936593532562256 118 123 120 0 0 636 1 633 2 365 3 248 4 241 5 328
638 -2.894506454467773 0.7784515619277954 -3.0305016040802 13 20 18 0 0 637 1 634 5 329
639 -3.026198625564575 0.1099092960357666 -2.794210910797119 138 143 138 0 0 638 1 635 3 249
640 -2.726080417633057 -0.655025839805603 -2.007307291030884 121 126 123 0 0 639 1 636
641 -2.176324367523193 1.256999850273132 -3.310446500778198 162 168 161 0 0 640 1 637 2 366 3 250 4 242 5 330
642 -1.960633635520935 0.9083680510520935 -2.814283847808838 145 153 149 0 0 641 1 638 2 367 3 251 4 243 5 331 6 224
643 -2.473244905471802 0.3269389867782593 -2.468543767929077 135 141 137 0 0 642 1 639 2 368 3 252 4 244 5 332 6 225
644 -3.168281078338623 0.3033952116966248 -3.178946971893311 124 128 123 0 0 643 1 640 2 369 3 253
645 -2.250662326812744 0.07674518227577209 -2.278084754943848 128 132 126 0 0 644 1 641 5 333 6 226
646 -2.162564277648926 -0.01356285810470581 -2.254061460494995 164 170 165 0 0 645 1 642 2 370 5 334 6 227
647 -2.990833759307861 0.102710634469986 -2.75355863571167 127 132 127 0 0 646 1 643 2 371 3 254
648 -1.647429823875427 -0.2309858947992325 -2.440633058547974 138 144 139 0 0 647 1 644 5 335 6 228
649 -2.899183034896851 0.7826246023178101 -3.033200740814209 127 131 133 0 0 648 1 645 4 245 5 336
650 -2.523536443710327 0.7134367227554321 -2.854443073272705 145 149 143 0 0 649 1 646 2 372 3 255 4 246 5 337
651 -2.298452138900757 0.5940622687339783 -2.716650724411011 150 154 148 0 0 650 1 647 2 373 3 256 4 247 5 338
652 -1.907424926757812 0.4379522204399109 -2.433943271636963 161 164 162 0 0 651 1 648 4 248 5 339 6 229
653 -2.489115715026855 0.4262919127941132 -2.570870876312256 138 144 140 0 0 652 1 649 3 257 4 249 5 340 6 230
654 -2.846879482269287 0.4725270867347717 -3.081127405166626 142 146 142 0 0 653 1 650 3 258 4 250
655 -2.014567375183105 -0.3385974764823914 -2.354952335357666 121 124 117 0 0 654 1 651
656 -1.960034012794495 -0.5257430672645569 -2.15331506729126 159 163 158 0 0 655 1 652
657 -2.765789747238159 -0.3624040484428406 -2.234322547912598 169 175 168 0 0 656 1 653
658 -2.460833787918091 -0.4699707627296448 -2.222650051116943 146 151 146 0 0 657 1 654
659 -2.735045671463013 0.56954425573349 -3.039932489395142 26 25 24 0 0 658 1 655
660 -2.4935622215271 0.4618920087814331 -2.596550703048706 115 122 118 0 0 659 1 656 2 374 3 259 4 251 6 231
661 -2.44218897819519 0.3115324676036835 -2.445582866668701 108 114 109 0 0 660 1 657 2 375 5 341 6 232
662 -2.964821815490723 0.2843479514122009 -3.037203550338745 119 123 120 0 0 661 1 658 2 376 3 260
663 -3.037975549697876 0.160761296749115 -2.89841628074646 90 94 90 0 0 662 1 659 2 377 3 261 5 342
664 -2.36060094833374 -0.3458259403705597 -2.298107385635376 160 165 159 0 0 663 1 660
665 -2.900972366333008 -0.2655900120735168 -2.285879135131836 106 110 105 0 0 664 1 661 2 378 3 262
666 -3.04797625541687 -0.2979018092155457 -2.384201765060425 88 91 88 0 0 665 1 662 2 379 3 263
667 -2.070664644241333 1.300311923027039 -3.288193941116333 128 135 129 0 0 666 1 663 3 264 4 252
668 -2.355759620666504 1.12617814540863 -3.091305017471313 158 164 160 0 0 667 1 664 3 265 4 253 5 343
669 -2.044920682907104 0.617317795753479 -2.588484525680542 147 151 144 0 0 668 1 665 2 380 6 233
670 -2.887287378311157 0.0002845855196937919 -2.537230730056763 177 180 175 0 0 669 1 666
671 -2.672297716140747 -0.3376210629940033 -2.223522186279297 110 117 112 0 0 670 1 667
672 -2.598034381866455 -0.4770805239677429 -2.232651948928833 141 145 140 0 0 671 1 668 2 381
673 -3.182183980941772 -0.5349772572517395 -2.179471254348755 121 127 121 0 0 672 1 669
674 -1.955475449562073 0.8193590641021729 -2.726428270339966 61 66 61 0 0 673 1 670 2 382 3 266 4 254 5 344 6 234
675 -3.144070625305176 0.1981067210435867 -3.006788492202759 62 69 64 0 0 674 1 671 2 383 3 267
676 -2.69732141494751 0.1104961633682251 -2.49575662612915 118 123 115 0 0 675 1 672 2 384 3 268 5 345
677 -3.317256212234497 -0.2511950731277466 -2.68721342086792 47 53 49 0 0 676 1 673 2 385 3 269
678 -2.190230131149292 1.474507689476013 -3.546927452087402 57 62 65 0 0 677 1 674 2 386 5 346
679 -1.434163689613342 1.271341443061829 -2.830157995223999 81 91 88 0 0 678 1 675 2 387 4 255 5 347 6 235
680 -0.9209736585617065 1.301932215690613 -2.998234748840332 119 123 117 0 0 679 1 676 5 348 6 236
681 -1.570863008499146 1.099341750144958 -2.816304922103882 121 126 122 0 0 680 1 677 2 388 4 256 5 349 6 237 7 22 8 1
682 -2.881866693496704 1.022305965423584 -3.081012725830078 84 92 88 0 0 681 1 678 2 389 3 270 4 257 5 350
683 -1.497467160224915 0.7852557897567749 -2.403624534606934 61 66 62 0 0 682 1 679 4 258 5 351 6 238
684 -2.034695386886597 0.6041595339775085 -2.589958429336548 97 102 95 0 0 683 1 680 2 390 4 259 5 352 6 239
685 -2.453723907470703 0.3817409574985504 -2.49004602432251 100 109 102 0 0 684 1 681 2 391 3 271 4 260 5 353 6 240
686 -1.923895120620728 0.2753578722476959 -2.297205448150635 96 105 99 0 0 685 1 682 2 392 4 261 5 354 6 241
687 -3.062936782836914 0.1740782707929611 -2.935965776443481 65 70 64 0 0 686 1 683 2 393 3 272 5 355
688 -2.931710958480835 0.08578354865312576 -2.678735017776489 117 123 117 0 0 687 1 684 2 394 3 273
689 -3.16553258895874 0.0678585022687912 -2.849086284637451 55 60 56 0 0 688 1 685 2 395 3 274
690 -2.900783777236938 -0.09410948306322098 -2.427184820175171 112 117 111 0 0 689 1 686 2 396 3 275
691 -1.95663058757782 0.2691323757171631 -2.31341290473938 53 60 56 0 0 690 1 687 2 397 4 262 5 356 6 242
692 -2.012283802032471 1.401734590530396 -3.316218614578247 89 96 92 0 0 691 1 688 2 398 3 276 4 263 5 357 6 243
693 -2.501893758773804 0.7566006779670715 -2.835479259490967 100 106 100 0 0 692 1 689 2 399 3 277 4 264 5 358
694 -2.227057933807373 0.7190825343132019 -2.788726568222046 114 119 113 0 0 693 1 690 2 400 3 278 4 265 5 359 6 244
695 -2.397562265396118 0.6824130415916443 -2.82215690612793 123 127 121 0 0 694 1 691 2 401 3 279 4 266 5 360
696 -2.643509387969971 0.1592272520065308 -2.530214548110962 55 61 57 0 0 695 1 692 2 402 3 280 5 361
697 -3.064041376113892 0.178162470459938 -2.942552089691162 68 73 67 0 0 696 1 693 2 403 3 281 5 362
698 -2.498287677764893 0.0673150047659874 -2.258756399154663 87 92 88 0 0 697 1 694 2 404 5 363 6 245
699 -2.355330467224121 0.03325197473168373 -2.216187953948975 94 101 95 0 0 698 1 695 2 405 5 364 6 246
700 -2.940874814987183 0.09084004163742065 -2.689091205596924 121 126 121 0 0 699 1 696 2 406 3 282
701 -0.9003450274467468 1.339849948883057 -3.008793354034424 69 74 67 0 0 700 1 697 2 407 4 267 5 365 6 247
702 -0.7449080944061279 1.331748962402344 -2.985222816467285 134 142 138 0 0 701 1 698 2 408 4 268 5 366 6 248
703 -1.847640991210938 1.349620223045349 -3.266498565673828 118 124 119 0 0 702 1 699 2 409 3 283 6 249
704 -2.842725992202759 1.187984228134155 -3.704865217208862 123 131 126 0 0 703 1 700 3 284 4 269
705 -2.309316635131836 1.002738475799561 -2.919238328933716 127 132 126 0 0 704 1 701 2 410 3 285 4 270 5 367
706 -2.27375602722168 0.9977216124534607 -2.902226686477661 84 90 85 0 0 705 1 702 2 411 3 286 4 271 5 368 6 250
707 -2.703621625900269 0.8931479454040527 -2.898715972900391 106 111 107 0 0 706 1 703 2 412 3 287 4 272 5 369
708 -2.098716735839844 0.6435381770133972 -2.601858854293823 70 76 69 0 0 707 1 704 2 413 4 273 5 370 6 251
709 -2.058876276016235 0.3334769308567047 -2.44968318939209 86 91 87 0 0 708 1 705 2 414 4 274 5 371 6 252
710 -2.915018081665039 -0.2439231425523758 -2.30029296875 111 119 112 0 0 709 1 706 2 415 3 288
711 -2.926552057266235 -0.2909478545188904 -2.288357019424438 81 86 80 0 0 710 1 707 2 416 3 289
712 -2.808448791503906 -0.5356374979019165 -2.19681715965271 130 136 132 0 0 711 1 708
713 -2.219106197357178 1.312051057815552 -3.349116325378418 120 125 120 0 0 712 1 709 2 417 3 290 4 275 5 372
714 -2.414293527603149 1.288544535636902 -3.384974002838135 148 154 150 0 0 713 1 710 2 418 3 291 4 276 5 373
715 -2.133793115615845 1.195355534553528 -3.204353094100952 151 157 151 0 0 714 1 711 2 419 3 292 4 277 5 374
716 -2.151607990264893 0.964430570602417 -2.826027393341064 157 167 162 0 0 715 1 712 5 375 6 253
717 -2.872158050537109 0.9596238136291504 -3.046753883361816 119 125 123 0 0 716 1 713 3 293 4 278 5 376
718 -2.170103073120117 0.6509595513343811 -2.661767959594727 137 145 141 0 0 717 1 714 2 420 3 294 4 279 5 377 6 254
719 -2.867347002029419 0.435142993927002 -3.063438415527344 81 87 82 0 0 718 1 715 4 280 5 378
720 -2.468563795089722 0.340080738067627 -2.477766990661621 160 167 163 0 0 719 1 716 2 421 3 295 4 281 5 379 6 255
721 -2.263628959655762 0.08879716694355011 -2.284037828445435 143 148 143 0 0 720 1 717 5 380 6 256
722 -3.146351337432861 0.2089873701334 -3.020909309387207 115 119 115 0 0 721 1 718 2 422 3 296
723 -1.753550171852112 -0.3953648209571838 -2.296097278594971 141 145 141 0 0 722 1 719
724 -2.796651363372803 -0.1463257968425751 -2.317630767822266 193 198 193 0 0 723 1 720 2 423
725 -2.679439783096313 -0.3389427363872528 -2.227162599563599 180 182 178 0 0 724 1 721
726 -2.559165000915527 -0.4784138202667236 -2.223564147949219 146 151 144 0 0 725 1 722 2 424
727 -2.209407806396484 -0.5835505127906799 -2.09956693649292 151 158 151 0 0 726 1 723
728 -2.152464151382446 -0.6019497513771057 -2.087050676345825 140 147 142 0 0 727 1 724
729 -2.773517847061157 -0.6178447604179382 -2.085060596466064 123 130 124 0 0 728 1 725
730 -2.342046022415161 1.034459829330444 -2.938993453979492 141 147 144 0 0 729 1 726 3 297 4 282 5 381
731 -2.242944478988647 0.9696217179298401 -2.859601259231567 125 131 128 0 0 730 1 727 2 425 3 298 4 283 5 382 6 257
732 -1.4745272397995 0.7823572754859924 -2.385340452194214 116 121 117 0 0 731 1 728 4 284 5 383 6 258
733 -2.191638469696045 0.2815777361392975 -2.475726366043091 88 95 90 0 0 732 1 729 2 426 4 285 5 384 6 259
734 -2.465839624404907 -0.02450592629611492 -2.25133204460144 143 150 149 0 0 733 1 730 6 260
735 -2.514009237289429 -0.4975999295711517 -2.193767309188843 122 128 124 0 0 734 1 731 2 427
736 -2.966038703918457 -0.4809302985668182 -2.203307867050171 123 128 123 0 0 735 1 732 2 428
737 -2.210041046142578 1.549668550491333 -3.620697498321533 62 67 64 0 0 736 1 733 3 299 4 286 5 385
738 -2.828623533248901 1.072667956352234 -3.202839136123657 150 157 154 0 0 737 1 734 2 429 3 300 4 287 5 386
739 -2.63647985458374 0.994920551776886 -3.059805631637573 188 195 191 0 0 738 1 735 4 288 5 387
740 -1.684319972991943 0.8157585263252258 -2.499351978302002 123 128 125 0 0 739 1 736 5 388 6 261
741 -2.612146615982056 0.7103763818740845 -2.832020282745361 165 171 166 0 0 740 1 737 2 430 3 301 4 289 5 389
742 -2.383387088775635 0.5983513593673706 -2.719614267349243 170 175 170 0 0 741 1 738 2 431 3 302 4 290 5 390 6 262
743 -2.368587255477905 0.5220645070075989 -2.661342620849609 162 168 163 0 0 742 1 739 2 432 3 303 4 291 5 391 6 263
744 -3.008191585540771 0.2737934589385986 -3.03746485710144 120 125 122 0 0 743 1 740 5 392
745 -1.994292140007019 0.2478669881820679 -2.323644161224365 124 131 127 0 0 744 1 741 2 433 4 292 5 393 6 264
746 -1.887338995933533 0.2251061797142029 -2.276260852813721 107 112 109 0 0 745 1 742 5 394 6 265 7 23
747 -2.378234386444092 -0.03592679649591446 -2.23593807220459 136 145 142 0 0 746 1 743 2 434 5 395 6 266
748 -2.410975217819214 -0.742188572883606 -1.873464584350586 100 105 102 0 0 747 1 744
749 -2.204891920089722 1.362440586090088 -3.424373865127563 143 150 144 0 0 748 1 745 2 435 3 304 4 293 5 396
750 -2.281773328781128 0.8295117616653442 -2.835224628448486 132 138 135 0 0 749 1 746 2 436 3 305 4 294 5 397 6 267
751 -2.36940336227417 0.7338561415672302 -2.867692232131958 154 157 152 0 0 750 1 747 3 306 4 295 5 398
752 -2.372032880783081 0.531778872013092 -2.671021699905396 114 119 114 0 0 751 1 748 3 307 4 296 5 399 6 268
753 -2.204867124557495 0.2443744838237762 -2.43586277961731 136 142 136 0 0 752 1 749 5 400 6 269
754 -2.679666757583618 0.1791525036096573 -2.541477203369141 163 168 162 0 0 753 1 750 5 401
755 -3.28116774559021 0.0816049724817276 -2.936414241790771 143 150 143 0 0 754 1 751 2 437 3 308
756 -2.726529836654663 -0.2027066498994827 -2.289232969284058 186 188 184 0 0 755 1 752
757 -2.414227485656738 -0.4073051810264587 -2.273964166641235 168 172 165 0 0 756 1 753
758 -2.360281229019165 -0.4832777976989746 -2.183660507202148 147 152 147 0 0 757 1 754 2 438
759 -2.183731079101562 -0.5399304628372192 -2.154236555099487 168 173 168 0 0 758 1 755
760 -2.863897085189819 -0.4034161269664764 -2.239096879959106 151 158 151 0 0 759 1 756
761 -2.646400690078735 -0.4860658645629883 -2.239500522613525 165 168 162 0 0 760 1 757
762 -3.300076484680176 -0.37117999792099 -2.433467864990234 159 164 160 0 0 761 1 758
763 -2.629477500915527 -0.6374089121818542 -2.035521984100342 120 128 122 0 0 762 1 759
764 -1.853550434112549 1.389375686645508 -3.29265832901001 162 168 162 0 0 763 1 760 3 309 4 297 5 402
765 -1.547788143157959 1.184577584266663 -2.829096555709839 141 149 146 0 0 764 1 761 5 403 6 270
766 -1.834534406661987 1.084279417991638 -2.988763332366943 128 134 131 0 0 765 1 762 2 439 4 298 5 404
767 -1.526867866516113 0.8427097201347351 -2.45398211479187 75 78 73 0 0 766 1 763 4 299 5 405 6 271
768 -1.817768454551697 0.2141716331243515 -2.273462295532227 120 128 123 0 0 767 1 764 4 300 5 406
769 -1.991078495979309 0.2134748995304108 -2.320040225982666 131 138 134 0 0 768 1 765 2 440 4 301 5 407 6 272
770 -3.169129610061646 0.2923392951488495 -3.165750503540039 136 139 134 0 0 769 1 766 2 441 3 310
771 -2.919565439224243 0.07765518128871918 -2.671164751052856 134 139 134 0 0 770 1 767 2 442 3 311
772 -3.143744945526123 0.08979664742946625 -2.866230249404907 114 117 114 0 0 771 1 768 2 443 3 312
773 -2.36681056022644 -0.07576801627874374 -2.249033451080322 156 163 158 0 0 772 1 769 2 444
774 -2.513371229171753 -0.4876954555511475 -2.197407960891724 143 147 144 0 0 773 1 770 2 445
775 -2.532292366027832 -0.562638521194458 -2.111693859100342 145 152 146 0 0 774 1 771 2 446
776 -3.176270008087158 -0.4907821714878082 -2.354662418365479 120 128 123 0 0 775 1 772
777 -2.156984090805054 0.7836094498634338 -2.799280881881714 159 164 159 0 0 776 1 773 2 447 3 313 4 302 5 408
778 -2.064140558242798 0.7286802530288696 -2.745532751083374 127 131 126 0 0 777 1 774 2 448 3 314 4 303 5 409 6 273
779 -1.994868278503418 0.7101808786392212 -2.672242403030396 131 136 132 0 0 778 1 775 2 449 4 304 5 410 6 274
780 -2.629775762557983 0.7364910840988159 -2.828301906585693 157 162 157 0 0 779 1 776 2 450 3 315 4 305 5 411
781 -2.043373584747314 0.2527869045734406 -2.360543251037598 120 126 122 0 0 780 1 777 2 451 4 306 5 412 6 275
782 -2.453783750534058 -0.081650011241436 -2.269732713699341 137 141 135 0 0 781 1 778 2 452
783 -1.924944400787354 -0.4577227234840393 -2.225139856338501 142 149 143 0 0 782 1 779
784 -2.857091665267944 -0.2656334638595581 -2.267413377761841 164 169 163 0 0 783 1 780 2 453
785 -2.155059814453125 -0.558298647403717 -2.128105163574219 135 141 135 0 0 784 1 781
786 -2.874081611633301 -0.353710412979126 -2.256051063537598 171 175 170 0 0 785 1 782
787 -3.232336759567261 -0.3179032802581787 -2.574492692947388 143 148 144 0 0 786 1 783 2 454 3 316
788 -2.015140533447266 1.54167377948761 -3.374958753585815 111 121 122 0 0 787 1 784 2 455 3 317 4 307 5 413
789 -1.724665641784668 1.504181027412415 -3.247669219970703 107 109 105 0 0 788 1 785 5 414 6 276 7 24
790 -2.840236902236938 1.179634809494019 -3.698428153991699 144 151 146 0 0 789 1 786 2 456 3 318 4 308
791 -2.069474458694458 0.9181251525878906 -2.825170993804932 174 180 175 0 0 790 1 787 2 457 4 309 5 415 6 277
792 -1.56391716003418 0.7117036581039429 -2.375106811523438 97 104 100 0 0 791 1 788 4 310 5 416
793 -1.860759019851685 0.4061999619007111 -2.425997495651245 139 144 138 0 0 792 1 789 2 458 4 311 5 417 6 278
794 -1.88652765750885 0.1341147720813751 -2.262929677963257 105 113 110 0 0 793 1 790 4 312 5 418 6 279
795 -2.475969791412354 0.1890625953674316 -2.357773780822754 125 131 128 0 0 794 1 791 2 459 5 419 6 280
796 -3.149347543716431 0.2935132086277008 -3.145020246505737 123 128 123 0 0 795 1 792 2 460 3 319
797 -2.111839771270752 -0.04120498150587082 -2.252245664596558 110 118 112 0 0 796 1 793 5 420 6 281
798 -2.329136610031128 -0.3699943721294403 -2.247747898101807 127 131 126 0 0 797 1 794 2 461
799 -2.155665159225464 1.29225742816925 -3.31335973739624 152 159 155 0 0 798 1 795 2 462 3 320 4 313 5 421
800 -2.416615724563599 1.002530217170715 -2.946701526641846 136 142 139 0 0 799 1 796 2 463 3 321 4 314
801 -2.490729570388794 0.6950865983963013 -2.818157434463501 165 169 164 0 0 800 1 797 3 322 4 315 5 422
802 -2.266128301620483 0.5345613360404968 -2.622467041015625 143 148 145 0 0 801 1 798 4 316 5 423 6 282
803 -3.12993860244751 0.3142411708831787 -3.177631855010986 138 143 138 0 0 802 1 799 2 464 3 323
804 -3.006221532821655 0.2532705068588257 -3.004666566848755 139 146 140 0 0 803 1 800 5 424
805 -2.373108148574829 0.01553884521126747 -2.213590145111084 166 174 170 0 0 804 1 801 5 425 6 283
806 -2.489504814147949 -0.207019254565239 -2.285787343978882 165 169 165 0 0 805 1 802
807 -2.502727270126343 -0.4178523421287537 -2.27021312713623 162 165 159 0 0 806 1 803
808 -2.346896886825562 -0.5204066634178162 -2.140017509460449 149 154 149 0 0 807 1 804 2 465
809 -2.565963983535767 -0.4896678030490875 -2.215149641036987 152 155 149 0 0 808 1 805 2 466
810 -2.233920335769653 -0.5896302461624146 -2.101293802261353 154 159 155 0 0 809 1 806
811 -1.988212466239929 0.836322546005249 -2.782939195632935 77 80 76 0 0 810 1 807 3 324 4 317 5 426 6 284
812 -2.103765487670898 0.7705538272857666 -2.78836464881897 126 131 124 0 0 811 1 808 2 467 3 325 4 318 5 427 6 285
813 -2.324665784835815 0.552764356136322 -2.684637308120728 115 120 114 0 0 812 1 809 2 468 3 326 4 319 5 428 6 286
814 -2.006664752960205 0.2541834115982056 -2.332461833953857 105 111 107 0 0 813 1 810 2 469 4 320 5 429 6 287
815 -2.879104137420654 0.1168103069067001 -2.687257766723633 93 97 93 0 0 814 1 811 2 470 3 327 5 430
816 -2.961561679840088 -0.1116113513708115 -2.439042091369629 126 131 125 0 0 815 1 812 2 471 3 328
817 -2.857868194580078 -0.2211753875017166 -2.30101490020752 129 134 125 0 0 816 1 813 2 472 3 329
818 -2.137756824493408 -0.6062111258506775 -2.077381610870361 92 99 92 0 0 817 1 814
819 -3.267154693603516 -0.4475066065788269 -2.394190788269043 135 140 135 0 0 818 1 815
820 -2.800537586212158 1.253844261169434 -3.732965230941772 53 61 53 0 0 819 1 816
821 -2.426580190658569 0.8437199592590332 -2.959040880203247 181 186 183 0 0 820 1 817 3 330 4 321 5 431
822 -2.434411525726318 0.6655741333961487 -2.814045667648315 108 113 107 0 0 821 1 818 3 331 4 322 5 432
823 -2.245331525802612 0.403886079788208 -2.544240236282349 131 136 132 0 0 822 1 819 4 323 5 433 6 288
824 -2.046346187591553 0.2881522178649902 -2.387390613555908 147 151 147 0 0 823 1 820 2 473 5 434 6 289
825 -1.990606784820557 0.2755462229251862 -2.335769176483154 108 113 109 0 0 824 1 821 4 324 5 435
826 -2.943093299865723 -0.3046058714389801 -2.292417526245117 111 114 111 0 0 825 1 822 2 474 3 332
827 -2.529236316680908 -0.5935462117195129 -2.076821804046631 137 144 138 0 0 826 1 823
828 -2.46348237991333 -0.6144911646842957 -2.05591344833374 139 145 140 0 0 827 1 824
829 -2.674625396728516 -0.5780379772186279 -2.123214721679688 150 156 151 0 0 828 1 825
830 -2.377582550048828 1.391578912734985 -3.520969867706299 142 149 146 0 0 829 1 826 2 475 3 333 4 325 5 436
831 -2.230457544326782 1.289878129959106 -3.338619232177734 109 114 109 0 0 830 1 827 2 476 3 334 4 326 5 437
832 -2.730285406112671 0.5637036561965942 -2.999011516571045 104 105 104 0 0 831 1 828
833 -2.334693193435669 0.01376855745911598 -2.196416139602661 151 160 156 0 0 832 1 829 2 477 5 438 6 290
834 -1.653319478034973 -0.2604894936084747 -2.415788173675537 156 162 158 0 0 833 1 830 5 439 6 291
835 -1.632002472877502 -0.2654931247234344 -2.409205436706543 137 142 139 0 0 834 1 831 5 440 6 292
836 -3.232726573944092 -0.2913710474967957 -2.597874641418457 122 124 122 0 0 835 1 832 2 478 3 335
837 -2.443763971328735 -0.7362733483314514 -1.896421909332275 128 137 129 0 0 836 1 833
838 -2.432891845703125 0.505743682384491 -2.635823011398315 171 175 171 0 0 837 1 834 4 327 5 441
839 -2.44897985458374 0.356936514377594 -2.478816509246826 155 161 156 0 0 838 1 835 2 479 3 336 4 328 5 442 6 293
840 -3.039870500564575 -0.5746222138404846 -2.150357007980347 77 84 79 0 0 839 1 836
841 -0.7323039770126343 1.353798985481262 -2.990391492843628 179 189 188 0 0 840 1 837 5 443 6 294
842 -3.0280442237854 0.9212133884429932 -3.163883209228516 83 87 84 0 0 841 1 838 2 480 3 337
843 -2.396934509277344 0.547268807888031 -2.689802408218384 138 144 138 0 0 842 1 839 2 481 4 329 5 444 6 295
844 -1.946232795715332 0.3455355763435364 -2.370087623596191 114 119 116 0 0 843 1 840 2 482 4 330 5 445 6 296
845 -1.703990817070007 -0.2770518064498901 -2.411275863647461 156 160 156 0 0 844 1 841 5 446 6 297
846 -2.670193195343018 -0.1054412126541138 -2.398658037185669 81 87 82 0 0 845 1 842 2 483 3 338
847 -2.245822429656982 -0.3190729022026062 -2.221472501754761 149 155 149 0 0 846 1 843 2 484
848 -3.128015041351318 -0.2642907798290253 -2.492640018463135 83 84 81 0 0 847 1 844 2 485
849 -2.816481351852417 -0.5131071209907532 -2.224150657653809 126 131 126 0 0 848 1 845 2 486
850 -2.326968908309937 1.412895202636719 -3.52346134185791 138 143 137 0 0 849 1 846 2 487 3 339 4 331 5 447
851 -2.342138767242432 0.7152431607246399 -2.849363803863525 140 145 140 0 0 850 1 847 2 488 3 340 4 332 5 448 6 298
852 -1.777525782585144 0.5957788825035095 -2.445820331573486 55 55 56 0 0 851 1 848 4 333
853 -1.875612497329712 0.5432541966438293 -2.514383316040039 97 100 95 0 0 852 1 849 5 449 6 299
854 -2.002670764923096 0.3833024799823761 -2.434565544128418 127 131 129 0 0 853 1 850 4 334 5 450 6 300
855 -2.204012870788574 0.2828267812728882 -2.475978136062622 157 162 158 0 0 854 1 851 2 489 4 335 5 451 6 301
856 -3.026772975921631 0.1804712414741516 -2.921194076538086 128 132 127 0 0 855 1 852 2 490 5 452
857 -1.867889046669006 -0.3066166043281555 -2.391566753387451 153 158 153 0 0 856 1 853 2 491
858 -2.478819370269775 -0.1886669397354126 -2.293152570724487 139 142 137 0 0 857 1 854
859 -1.917112112045288 -0.4027851521968842 -2.280286312103271 154 159 154 0 0 858 1 855
860 -2.704506397247314 -0.3098005056381226 -2.242977142333984 185 189 186 0 0 859 1 856 2 492
861 -2.662077665328979 -0.3497614562511444 -2.208709001541138 154 158 153 0 0 860 1 857 2 493
862 -2.918621301651001 -0.30376797914505 -2.277757883071899 137 143 138 0 0 861 1 858 2 494 3 341
863 -2.138408422470093 -0.5555902123451233 -2.131327390670776 157 163 158 0 0 862 1 859
864 -2.674532651901245 -0.4100891947746277 -2.215746879577637 190 195 188 0 0 863 1 860
865 -2.748037815093994 -0.5374698638916016 -2.197414636611938 134 141 137 0 0 864 1 861
866 -2.459498643875122 -0.6175113916397095 -2.048722743988037 134 141 134 0 0 865 1 862
867 -2.389838695526123 -0.6386286020278931 -2.026261806488037 126 137 129 0 0 866 1 863
868 -2.821201324462891 -0.5415279865264893 -2.196124315261841 122 130 125 0 0 867 1 864
869 -2.570495843887329 -0.610967218875885 -2.068809986114502 124 129 124 0 0 868 1 865 2 495
870 -2.713114500045776 -0.6802589893341064 -1.98072612285614 130 136 132 0 0 869 1 866
871 -1.43817138671875 1.256806492805481 -2.823215961456299 134 140 138 0 0 870 1 867 4 336 5 453 7 25
872 -2.132883548736572 1.276739835739136 -3.30630898475647 151 156 151 0 0 871 1 868 2 496 3 342 4 337 5 454
873 -2.731742858886719 1.00214409828186 -3.039168834686279 145 151 148 0 0 872 1 869 2 497 3 343 4 338 5 455
874 -1.780484557151794 0.789678156375885 -2.502230167388916 144 150 146 0 0 873 1 870 4 339 5 456 6 302
875 -1.735408067703247 0.7348993420600891 -2.397100687026978 127 135 131 0 0 874 1 871 2 498 5 457 6 303
876 -2.282771825790405 0.8233153223991394 -2.834651231765747 128 134 130 0 0 875 1 872 2 499 3 344 5 458 6 304
877 -2.186232566833496 0.7721946239471436 -2.803644418716431 162 168 162 0 0 876 1 873 2 500 3 345 4 340 5 459
878 -2.081753015518188 0.7149808406829834 -2.736529350280762 105 110 104 0 0 877 1 874 2 501 3 346 4 341 5 460 6 305
879 -2.074017524719238 0.1733701676130295 -2.343244075775146 113 120 115 0 0 878 1 875 2 502 4 342 5 461 6 306
880 -2.48018741607666 0.2207052558660507 -2.393419981002808 109 116 113 0 0 879 1 876 5 462 6 307
881 -2.034244298934937 0.1224807277321815 -2.320774555206299 77 80 75 0 0 880 1 877 2 503 5 463 6 308 7 26
882 -3.015056133270264 0.3365360498428345 -3.120118856430054 18 26 24 0 0 881 1 878 2 504 3 347
883 -1.608825922012329 1.03228759765625 -2.785683631896973 67 72 67 0 0 882 1 879 2 505 4 343 5 464 6 309
884 -2.707162141799927 0.1574289500713348 -2.531389474868774 43 49 44 0 0 883 1 880 2 506 3 348
885 -1.876729249954224 0.2542758285999298 -2.26847505569458 68 78 70 0 0 884 1 881 5 465 6 310
886 -1.418723106384277 1.24325168132782 -2.816048860549927 33 36 33 0 0 885 1 882 2 507 4 344 5 466 6 311 7 27
887 -3.031484842300415 -0.3188991248607635 -2.365055084228516 51 53 51 0 0 886 1 883 2 508
888 -2.049742221832275 0.1992628872394562 -2.337813377380371 41 44 39 0 0 887 1 884 2 509 4 345 5 467 6 312 7 28
889 -1.948506236076355 0.5830346941947937 -2.562894105911255 45 48 42 0 0 888 1 885 2 510 4 346 5 468 6 313
890 -1.991280913352966 0.574586033821106 -2.558236122131348 82 85 81 0 1 886 2 511 4 347 5 469 6 314
891 -2.385429382324219 0.9548889994621277 -2.929414987564087 48 51 47 0 0 889 1 887 2 512 3 349 4 348 5 470
892 -2.908256053924561 1.101895451545715 -3.229471683502197 86 94 91 0 0 890 1 888
893 -1.715124130249023 0.4016005396842957 -2.419483661651611 13 23 20 0 0 891 1 889 5 471 6 315
894 -1.271554112434387 1.60073983669281 -3.390542507171631 103 112 111 0 0 892 1 890 2 513 3 350 5 472 6 316
895 -1.936427474021912 1.401494145393372 -3.303020477294922 158 164 160 0 0 893 1 891 2 514 3 351 4 349 5 473 6 317
896 -1.764854311943054 1.387983560562134 -3.269026756286621 128 135 129 0 0 894 1 892 2 515 3 352 4 350 5 474 6 318
897 -1.423179984092712 1.263857007026672 -2.818587303161621 83 91 88 0 0 895 1 893 2 516 4 351 5 475 6 319
898 -1.759965538978577 1.227872371673584 -3.08123517036438 85 89 82 0 0 896 1 894 2 517 3 353 4 352 5 476
899 -2.170139074325562 1.180270314216614 -3.20171070098877 93 98 91 0 0 897 1 895 2 518 3 354 4 353 5 477
900 -2.11841893196106 1.024925827980042 -2.83533763885498 119 129 125 0 0 898 1 896 2 519 3 355 4 354 5 478 6 320
901 -3.000393867492676 0.9413974285125732 -3.155730962753296 98 104 100 0 0 899 1 897 2 520 3 356 4 355
902 -2.230809450149536 0.531688928604126 -2.598605632781982 105 112 107 0 0 900 1 898 2 521 3 357 4 356 5 479 6 321
903 -2.166400671005249 0.2905300855636597 -2.470860004425049 100 105 99 0 0 901 1 899 2 522 4 357 5 480 6 322
904 -2.084743022918701 0.1991898268461227 -2.358477830886841 86 91 85 0 0 902 1 900 2 523 4 358 5 481 6 323
905 -3.043289661407471 0.1310601830482483 -2.850883722305298 100 105 101 0 0 903 1 901 2 524 3 358
906 -2.865538835525513 0.03318791836500168 -2.567132949829102 116 121 116 0 0 904 1 902 2 525 3 359
907 -3.029263496398926 0.3091756105422974 -3.112986087799072 74 80 75 0 0 905 1 903 2 526 3 360 5 482
908 -3.104518413543701 0.2553486824035645 -3.062093019485474 53 56 52 0 0 906 1 904 2 527 3 361
909 -1.996978998184204 1.456553339958191 -3.304057121276855 81 88 83 0 0 907 1 905 2 528 5 483 6 324
910 -1.032646179199219 1.209566354751587 -2.836603164672852 116 125 121 0 0 908 1 906 2 529 4 359 5 484 6 325
911 -1.713604211807251 1.168962240219116 -3.005997657775879 62 68 64 0 0 909 1 907 2 530 3 362 4 360 5 485 6 326
912 -1.733163118362427 0.7037619352340698 -2.382811546325684 74 79 77 0 0 910 1 908 2 531 4 361 5 486 6 327 7 29
913 -2.527891635894775 0.448042631149292 -2.601556062698364 108 115 112 0 0 911 1 909 2 532 3 363 4 362 5 487
914 -2.474010467529297 0.4355466067790985 -2.580499410629272 89 96 90 0 0 912 1 910 2 533 3 364 4 363 5 488 6 328
915 -2.508612155914307 0.3715108335018158 -2.507785558700562 120 126 121 0 0 913 1 911 2 534 3 365 4 364 5 489 6 329
916 -1.944136142730713 0.2552767693996429 -2.299324512481689 70 78 73 0 0 914 1 912 2 535 4 365 5 490 6 330
917 -2.974248647689819 0.1943389475345612 -2.909457206726074 71 78 72 0 0 915 1 913 2 536 3 366
918 -2.39273738861084 0.01455726660788059 -2.217695474624634 67 72 67 0 0 916 1 914 2 537 5 491 6 331
919 -1.559942603111267 -0.2101372331380844 -2.447666645050049 73 81 78 0 0 917 1 915 5 492 6 332
920 -2.964044570922852 0.05834560841321945 -2.64427924156189 98 103 97 0 0 918 1 916 2 538 3 367
921 -3.220850229263306 0.04350674524903297 -2.868200302124023 99 103 98 0 0 919 1 917 2 539 3 368
922 -3.138521671295166 0.02871198207139969 -2.765507698059082 111 116 112 0 0 920 1 918 2 540 3 369
923 -2.927634954452515 -0.6116162538528442 -2.086889505386353 132 139 133 0 0 921 1 919
924 -1.270101189613342 1.624610424041748 -3.425522327423096 41 49 43 0 0 922 1 920 2 541 4 366 5 493 6 333
925 -2.353761672973633 1.403316617012024 -3.52837061882019 111 117 111 0 0 923 1 921 2 542 3 370 4 367 5 494
926 -2.762503623962402 1.10878050327301 -3.237601757049561 76 81 78 0 0 924 1 922 2 543 3 371 4 368 5 495
927 -1.93645453453064 0.3058687746524811 -2.327740430831909 34 40 36 0 0 925 1 923 2 544 4 369 5 496 6 334
928 -2.742910385131836 0.03550391644239426 -2.476913928985596 75 80 73 0 0 926 1 924 2 545 3 372
929 -1.283634781837463 1.616653323173523 -3.431926965713501 86 95 96 0 0 927 1 925 2 546 3 373 4 370 5 497 6 335
930 -1.4645174741745 1.383600473403931 -2.938017845153809 42 47 43 0 0 928 1 926 2 547 3 374 5 498 6 336
931 -1.324723601341248 1.263101100921631 -2.793270349502563 92 98 93 0 0 929 1 927 5 499 6 337
932 -2.287178516387939 1.393162488937378 -3.502936601638794 135 143 139 0 0 930 1 928 3 375 4 371 5 500
933 -2.26341438293457 1.280918598175049 -3.355097055435181 89 94 87 0 0 931 1 929 2 548 3 376 4 372 5 501
934 -1.506379723548889 0.8094702959060669 -2.426589250564575 106 113 108 0 0 932 1 930 4 373 5 502 6 338
935 -2.750049352645874 0.9179407358169556 -2.952077150344849 128 135 131 0 0 933 1 931 2 549 3 377 4 374 5 503
936 -2.092470645904541 0.486522763967514 -2.530823469161987 118 124 119 0 0 934 1 932 2 550 4 375 5 504 6 339
937 -3.097949028015137 0.3129515945911407 -3.145026445388794 125 130 124 0 0 935 1 933 2 551 3 378
938 -3.107827186584473 0.2465299963951111 -3.040102481842041 81 86 81 0 0 936 1 934 2 552 3 379 5 505
939 -1.963354349136353 -0.004213558044284582 -2.292311668395996 135 141 136 0 0 937 1 935 5 506 6 340
940 -2.350189685821533 0.02003349922597408 -2.20588493347168 90 97 91 0 0 938 1 936 2 553 6 341
941 -3.113495111465454 0.05257712304592133 -2.772638082504272 85 91 87 0 0 939 1 937 2 554 3 380
942 -3.282617568969727 -0.3855261206626892 -2.420435905456543 91 100 96 0 0 940 1 938 2 555 3 381
943 -2.419111728668213 0.9298845529556274 -2.973042249679565 28 26 22 0 0 941 1 939 2 556 3 382 4 376 5 507
944 -1.594475150108337 -0.2093511819839478 -2.450604915618896 98 104 97 0 0 942 1 940 5 508 6 342
945 -2.250815629959106 1.594300389289856 -3.728704452514648 97 103 100 0 0 943 1 941 2 557 3 383 4 377 5 509
946 -1.384974360466003 1.269510269165039 -2.78944730758667 50 58 52 0 0 944 1 942 2 558 4 378 5 510 6 343
947 -0.8488253951072693 1.305923461914062 -2.97666335105896 115 121 116 0 0 945 1 943 2 559 5 511 6 344
